ply
format ascii 1.0
element vertex 733
property float x
property float y
property float z
property uchar red
property uchar green
property uchar blue
end_header
46.839955458358915 32.8367071434322 74.94205280630354 83 14 109
46.39351133195683 67.42999752724556 53.66326102061548 46 99 80
54.4007666059675 78.16587423936889 59.31748961405838 194 37 131
48.3035351829027 2.5322143790497353 70.48501641466076 246 112 179
8.52790120952368 78.53343523465648 96.5975630293747 46 188 66
20.129037185834918 39.140357433139705 18.03386905968518 44 93 72
70.08594064195603 63.60483485249835 43.87308135762348 61 106 150
61.72385260708788 87.94541653455033 72.7569982663079 131 56 56
68.8336810924769 55.18996473117037 1.3421800217077284 180 231 7
2.7264659685126924 89.65140187664383 80.7038541295798 176 15 103
78.72276196065707 14.411172063487443 61.92802237043793 232 141 222
21.282734275062253 78.88903464253004 24.4936238200546 97 27 219
57.52062427195137 89.05465721087857 59.57355716827315 85 207 93
31.108648741312795 59.661234362542324 25.49611233663035 193 16 253
52.903170973889836 97.52684774214188 15.168066374307255 47 197 247
39.307412426441225 58.73063146430453 22.634513814030278 27 194 29
25.054578855820285 9.772079869139139 79.10695632464876 44 62 196
97.36636121742163 54.79771434616744 7.562084823954129 143 26 132
90.4298989009024 18.39732289285302 0.052794120052856996 15 68 168
19.868632042954125 98.57916337004693 48.48683275311576 7 237 134
32.85496389952749 85.3337018702441 25.356538957858156 223 133 205
69.51946390635159 75.3579114974032 8.99126236264407 141 254 161
28.05686641261831 10.669835164217002 26.711272144574274 101 228 204
36.39293151527547 80.72404286912415 70.9701422844131 111 183 128
90.97015513046983 93.63869449098635 66.11945840131077 59 189 23
57.356018634021275 76.58670443220291 24.546457527105346 62 243 15
13.108025971854854 75.734733560833 80.7502290101063 25 71 31
31.80518670434742 41.36772937045436 83.7356946017307 252 183 69
82.88913113941497 3.826309089351687 10.211259053793853 0 233 108
51.68740758669744 34.03727819726961 72.34188542820102 188 219 186
48.25493552423885 1.7490818820449672 11.962215541554045 106 233 104
84.20107002289157 37.103244400500365 13.716415006150061 93 231 15
83.69387419130194 43.30601929480385 21.852708348780723 153 215 166
52.28120860382871 38.223671566949726 94.89251323219239 197 127 97
45.45337828825331 28.01167076161295 32.78829473093128 124 181 110
60.5094094162413 57.507206051542205 56.365116600271826 89 241 209
12.549944334072338 85.84952833452867 66.78254556886881 213 119 79
43.158065265880275 33.29503738897619 59.53668293344928 90 40 146
70.73302469354128 52.91561934458008 85.66147223127824 128 221 224
33.50381813098744 67.49167936172552 56.599377448852884 137 185 210
69.26188232667496 58.19737048523963 18.610819031188765 172 101 159
60.6141697369561 99.44422867554775 65.61518525802758 102 195 83
72.97092695035681 45.962787347667444 60.91917882018746 142 145 193
82.75214242368081 29.725509329742028 71.22589673390509 198 153 73
61.3781060780181 3.3540018056693155 33.43594815283046 52 89 155
88.96498115850211 39.632104558791056 7.185620363721956 179 211 42
21.62293048748416 78.89120195310385 94.51518959801729 21 5 18
42.92445943573341 25.00299912541931 27.41977086583264 175 211 151
42.16724728466509 44.52725268132605 9.832961298285847 182 8 114
95.94842012902936 76.46230662372531 48.414062815941804 175 67 155
58.50227237172144 95.23815907583055 29.076636373079147 16 158 88
54.883298143995916 66.43626938170922 42.01556294643585 240 187 121
27.342099480838545 62.19379393401224 93.9361551215043 233 26 41
34.24088520542696 24.98648786897454 38.8296996393263 83 17 243
71.3379022966108 62.90790233457173 3.2394712848278773 199 124 42
37.10871486909596 90.29335842500025 77.91641305671251 192 36 239
87.40302194476223 86.04524228166626 26.165980098238638 44 191 59
47.3429089042126 27.048680321231032 75.84134555987258 229 245 26
62.436526274564756 54.14372801031112 54.73292422766366 9 248 100
48.347664692324614 91.16199864266576 15.009916708467209 34 4 161
27.477765573857216 14.439295374668681 27.015316294550075 120 238 186
37.8779451268998 70.50487248567929 68.59366714304737 176 193 25
19.44052456301253 81.05687050303861 98.61066369991491 76 90 4
36.66213237032625 51.967671634090976 48.22328608731862 186 253 108
35.986942963707335 70.24893103257915 70.68935941686867 134 95 183
93.73002723687705 4.764409868654351 3.292261238980587 184 0 80
83.18402248958598 18.15034654568034 11.212976898563277 60 180 227
49.8746012059847 3.0978471989924095 16.4967819799578 26 56 50
41.93712050753064 28.140778240560326 67.62022963257297 225 20 91
51.001473907084105 24.592773269449353 18.231896429466566 242 240 50
73.66676352152807 65.3044389026973 80.00892016195192 127 156 1
20.876466969411865 80.8462819484371 39.54723934019142 202 80 28
83.2925472837394 47.99085426156389 16.7627015995398 101 210 185
61.47945267620214 26.7082472240584 60.45802349303151 101 183 222
10.124155482535658 32.0225516065856 54.6911798890781 50 180 7
15.848316827942565 34.47551035591502 78.22047290618606 161 202 206
56.43628888863016 87.60193005196219 92.42343749732377 7 227 194
93.47638355721887 39.13751323985218 10.659534949535077 167 127 77
56.45670949586421 13.009708839820755 82.67964507823315 74 75 69
17.870795379432757 62.64704472416318 74.0132508462913 228 119 213
86.2524304859268 37.261380234380304 62.28910590254336 27 138 29
13.976971667709648 24.507557802742042 81.02571983202118 202 251 165
20.179353982415204 18.512314542305386 42.76250020626418 178 4 150
34.41810573369022 40.870682074933896 63.77755228667854 213 226 130
14.194234390937478 68.77757751886622 27.947193100797275 129 152 153
28.51348838831884 83.8147956113046 59.91022695940909 123 140 210
12.455659572757249 49.450015170673666 1.13955810843267 207 198 216
99.53517772906376 9.9433789983007 42.154982845465696 155 16 74
15.01113255519969 80.27963966346276 24.318810342261944 55 221 146
11.294872669628342 98.90162690326493 43.352847212138656 43 8 116
98.56821321196524 45.51134839362645 76.66882831635009 174 137 63
45.18359163980329 49.77617035548818 12.85413803396651 92 24 145
64.4522827353861 41.45495190332016 47.90678174249574 246 241 250
96.06688737622025 32.82238281628057 50.67119453530129 25 15 115
66.0141194623342 46.30696903970596 27.420680009994335 168 164 217
44.445493401554145 57.128022886720274 42.29653354203708 89 223 238
42.56461154270315 1.4176287511281194 60.88446449486199 199 155 214
16.91868701668883 58.20473518874258 10.52377412730574 90 15 193
86.19452967391645 62.980903711363844 84.10995253185875 145 247 88
19.434538995418983 14.777697259391676 67.0113319225508 199 224 89
41.07237128767455 52.428360360552816 48.098960834762 127 253 249
69.71603771537686 56.98952448721416 3.200712937456851 123 99 212
45.32208910618125 61.75191452724046 27.076855419390313 109 88 101
6.1780099658547805 51.99908811054607 7.3226526994258245 112 233 248
1.4861809864190612 41.100453326213426 14.910833867487527 131 73 87
39.22633243306566 7.054098656006092 99.09977955178475 71 1 32
25.716488796838266 22.80843945920359 16.95051742336371 139 222 130
76.76264846906945 81.74689069497629 53.226718353178846 113 76 231
97.38028715533976 73.65875814184153 38.666595602884755 178 1 61
35.65702799092575 52.63979316712199 3.9441447934673413 98 51 171
55.70911555830992 5.4099263655902785 53.79131713864334 131 250 112
82.17657274861153 28.39927182623153 88.16352669772292 31 121 240
61.85205245026122 70.28588519298704 49.10393712603778 3 126 105
97.77970742041111 99.11756397326282 47.052654614314434 29 199 84
11.763429019125237 47.08017694569392 32.67403137856668 12 150 71
44.72850537225852 31.175073586572633 49.40202663845326 45 201 84
19.792699810131577 99.09942051430224 94.92852518163252 115 220 48
58.347523877689426 2.0897758715327175 84.60593750927538 91 117 144
29.598697702764543 31.754430014674394 87.60186853813109 130 153 42
89.45032578311837 32.00251594872008 43.95555918272852 1 64 50
72.88636919800842 40.26571534867806 52.72175792014219 23 158 64
58.686851916483505 74.73491379756653 46.89698610724664 59 83 130
65.47798207662707 4.670914568637952 73.72933885681505 245 117 8
73.59920133911062 82.54474455505309 91.86528254684016 174 252 154
67.7293990763571 45.5952473623748 72.74504151507081 246 82 242
16.621767594260394 55.86813905976856 87.66251625055624 121 76 16
87.39871206486369 88.21106085022032 29.010818210707324 231 158 97
41.03780661624076 45.439691422728664 30.656154788117075 106 163 226
91.1145811571902 5.588279246026673 97.95736184758444 87 210 106
8.901668322299983 54.136124297124546 41.934286513572204 148 148 20
55.87442712049523 97.15628851951718 43.16795061969982 129 71 20
81.07493912473677 19.201196500748765 2.8838806170794484 133 84 81
90.31567102285084 85.92741247405756 99.10634801364381 18 50 196
35.32109933033627 71.6336238150738 19.149453178088947 111 122 13
56.5541200219264 93.36148199545853 91.68864886853298 191 6 100
24.651046236735507 1.734849290112106 18.89811742748736 102 87 163
59.36222485949989 27.706092611587994 8.441212832904865 28 135 13
5.7158327888821026 56.425282018726264 8.870517916843834 196 45 81
45.933133369044086 95.03017555436543 28.818468303174306 225 67 226
0.6670481263133077 21.779829580513777 63.20812238699798 151 51 14
85.79641507215358 65.10586394818137 2.02098497005877 28 141 23
79.21279894252741 77.95016884631117 12.723330990816617 4 160 114
78.30955359796631 55.93238859696083 83.72832122892228 24 193 183
18.82694955785402 20.288500028255818 79.83797985807874 174 74 88
81.29343644750527 74.12669584861229 92.47828248960441 35 168 153
47.82099209635036 13.206525081381859 86.2886436991493 236 140 213
24.92803026779781 15.402186686215035 78.77344553395753 51 206 228
60.04307399870152 48.49329900624627 68.2508441603862 216 123 56
38.708886731483396 51.0785883987196 0.30208526913537703 92 84 219
14.623955946958944 71.57140745081263 59.229417691959675 139 186 128
62.55815618147811 18.68335939478929 31.071057527189872 123 110 23
74.66163105496061 63.64827139680214 14.253648686101839 149 15 233
69.00136240995657 8.019261794051225 4.498793512414001 1 205 234
90.76323221066504 92.1161889852912 57.49685291640172 126 231 33
70.1605559160716 46.75192247730453 21.721866539160818 35 24 21
53.1721992108777 60.429824943591306 82.74543168015089 20 12 53
24.55749909909388 97.37999750431612 10.775824526627265 253 93 74
0.8903955668235985 94.57891749469664 96.46613046377375 122 143 179
88.54797596779653 50.953562044078595 28.587416193762238 246 16 233
69.91286888935491 18.304190000068665 9.113594003425929 196 8 192
59.91029339187301 13.932210433555847 58.12847131464448 26 35 9
29.679148772456678 86.73500437815024 90.05913436500694 152 151 2
19.601226486649093 81.46872549225861 71.11949217520096 135 196 165
5.201612483541574 72.53641155337672 31.323704652072227 238 234 55
71.12943055814607 45.8685778641894 48.90222188610933 222 121 173
48.0233568888617 37.0107061014345 17.014749951264186 9 146 89
98.6452994982497 0.1503280225212844 38.147326921234935 244 205 174
30.57840114288144 30.24906254392038 65.9740094110375 242 38 3
18.6218819240776 31.910024404312832 25.568117097861 48 115 186
26.372902196983194 30.263742873905397 21.523613253839603 60 149 133
48.34180719562254 12.655271940707657 96.92747330878832 44 171 34
83.30034390981496 9.875471862534347 66.54045407026595 239 10 3
63.50376922732532 32.02219428326356 64.75768026108237 10 6 20
87.96124743481477 94.37880488911341 13.237972334888626 123 187 72
9.534788612835598 34.43265078756973 90.04339768145155 91 201 92
2.3047490611309396 68.45013460604885 42.648976612163224 157 86 110
29.41488328876718 6.708563720971017 70.62810931719045 173 1 246
85.43072410783653 82.35432512299974 77.64419055887102 184 129 179
38.15264844569241 67.6497337558173 4.567042915267871 140 174 1
99.51308075756465 19.22831835257426 58.39652728567463 191 52 209
33.675105182690935 23.037957229412022 88.28696575196336 64 124 81
42.8715258382349 60.852418861177306 79.63077802806724 44 252 169
98.0103787648599 44.30276330095787 27.19399178496594 207 104 39
61.31000071690288 5.205114908061059 52.806885254827684 53 48 214
65.91871110673007 7.790539931544527 65.12178074590588 132 182 137
8.615058124996677 5.248292596546877 47.82699017564962 125 73 96
90.01241033222952 17.739697532030107 70.25962936563266 134 104 40
67.52267343932195 48.602470488747976 99.06016720085285 228 150 90
68.21933840958107 37.46697301188191 30.376782259124337 227 70 122
71.31697166108644 85.4395088331423 67.51117097065547 57 41 209
49.655016608089085 30.07677655250388 61.21514023469451 147 7 80
93.50523994571128 72.89406325113072 11.094549883067495 55 202 33
69.96006639974645 46.224920150310034 84.43347746857665 201 250 42
55.381797243334155 4.976180636341687 25.27232446528329 157 42 59
46.45273771973507 13.375483591441839 6.459757140447763 140 46 216
67.65623875217806 64.27156523402444 99.80039541891344 111 184 194
44.07068817761495 62.07405262541394 77.80692317421851 211 208 230
27.89036276829536 72.16229476483598 41.47408028700038 109 20 107
73.00063624033002 31.721929316203312 53.83566881486737 41 220 180
18.745015251222142 55.251427447662635 31.87681335536179 38 126 84
31.08857619448634 83.11814681974772 1.0733108408540692 206 185 94
99.08705236339726 89.27614597876185 20.103791469900944 71 202 13
26.157196328076047 10.571976685319628 5.651378697917253 168 69 149
18.150004750267858 61.53036548458842 4.458470447007867 57 156 196
81.6067615831022 81.68361291219409 48.15819386131627 3 237 83
25.18176740291964 90.73374662164545 19.85564547166475 231 236 195
89.59729610629923 49.13932311148657 43.29320788856772 103 100 25
43.3729398782178 35.83215933480518 69.75073354949294 206 64 239
89.16098521626445 93.33008442937258 25.158469313197905 108 254 25
31.1142155487229 36.950974678697015 33.93847180477727 166 65 5
16.32558526783455 25.88646604222331 52.68042109662294 109 5 59
82.54951838552853 46.61107378350761 29.95243810512057 16 32 76
52.11750608466351 14.26621667687119 79.52339761201902 85 103 145
74.69074298362102 72.73820086883754 58.07527221744445 62 69 152
64.14356851464719 65.67251202986853 62.789219124386044 252 209 111
50.58392259146424 36.30509921251793 70.51953569816084 248 248 20
85.77054988098065 56.31390547032726 55.19844518509684 33 160 52
12.124510031259028 98.2970667668954 14.034186138267001 71 246 154
45.61891612928657 22.141317750401722 11.81192745442139 13 207 49
57.70461625264137 9.036202544572491 58.09442222948551 119 152 52
76.47756040659786 76.73314832295223 93.2659992275376 62 131 9
13.194531974503699 34.824074746007895 81.5549157698007 33 4 108
6.478447874185333 72.5930987282524 35.311212857554544 110 225 94
67.1925510602324 24.87385148448462 68.42999233153095 118 71 190
83.65065762604914 30.315517296349014 27.131595536081733 198 48 223
38.11221993339664 66.68695643937984 24.619154779012263 117 93 143
23.65712265498605 6.523308440483411 6.646826181201481 227 58 235
90.54101337550313 27.902737635671315 2.788777180211377 220 93 3
6.989084825140635 47.328113941194474 67.63769398924747 63 252 40
80.61126671611332 98.69735873683187 43.28095966757976 189 0 20
16.24480025924232 72.48241842812313 85.05394745349206 221 131 123
81.25169311634444 95.75610271439415 34.22135653070073 17 0 93
21.647435886826717 97.63052243240722 42.08478102375999 180 109 200
95.53347089059329 80.94630036956256 1.3468390414249964 228 103 239
90.4270371149546 96.04021641767156 57.172984846583866 193 21 241
40.64781098814603 43.624794505420525 44.65322007853217 239 92 200
53.31546919568814 46.40564991658616 10.933279726053502 118 171 27
1.8492792636182531 89.68065899498838 10.014892990235946 170 30 30
25.262273177714324 26.547252210719897 35.42958449142797 48 220 91
9.343633873726665 85.78931912687924 59.47773602590579 125 115 68
15.92024499477831 42.925063141624676 39.45695047164012 114 67 150
52.04117983902869 6.899190004870404 58.02717911590975 6 150 228
34.413811043748844 7.42943253524011 27.38322036004034 174 146 105
53.64542550067113 43.041298419801834 61.65216780928808 122 93 188
26.646213912636817 58.274520941793654 7.810131214949623 200 133 32
81.74990838704039 94.31636136715947 44.39276147519264 243 140 173
76.71788781536917 71.08147394598178 5.970818772102604 25 126 102
57.686236158958415 87.81319056064275 50.004003398131424 15 112 222
5.098049983509889 39.984597652052614 20.81298134070213 162 207 92
48.122814041484155 83.13558648013439 59.861111489098626 10 230 237
24.74527471125795 51.04427698308065 2.3001943543167647 97 222 68
15.905245828490067 67.02795430687208 84.57953291284991 17 103 36
2.0618840444960873 0.7988039379469569 90.17027068865701 183 91 219
90.72209650739336 30.249423647454222 4.693024862043482 12 103 106
6.026203973601074 54.3112435628497 70.21562412262594 101 210 82
37.45775044951559 41.912710859539125 33.418558258096354 210 146 143
42.39566954984115 18.158057073070754 11.660674630847435 197 9 173
55.72656556647605 93.6648660238439 10.862345858133992 214 134 124
1.643914700460758 75.81719498222587 56.61439422700886 52 118 248
72.09462155825395 23.939468509723007 71.18724995232384 237 124 113
0.41554167961400656 65.19785755625665 0.5606046836641898 111 151 187
5.896389482310427 45.57222713888686 77.13627763130633 64 112 97
82.56959857451012 69.70609928567299 99.20886742789209 251 155 172
81.9557695825679 19.729612197025105 39.787839072448016 52 48 168
35.60981490632976 26.55632721711847 35.87511249436842 179 44 160
5.846226600725368 70.4823272585816 17.914557242743356 59 59 215
60.68348663954388 56.455357543222206 85.85748064185836 228 78 68
93.26893410760815 33.50604260113208 12.587416591757282 114 234 156
27.605941215729345 6.176564203014512 66.19365226492266 63 32 242
71.3212240495946 46.25975854152449 76.75670177634976 116 179 174
97.28909416740721 28.956602352754423 31.370846603778435 166 74 246
58.8534010355874 89.43027351184432 34.92079030341508 13 24 184
34.33797144563299 35.0183177750757 2.325928205344363 27 45 220
28.09788309682607 83.71916563513572 45.94161510311733 172 166 30
87.90624185429951 32.38715698028503 6.717715916269206 115 249 14
1.9077083497643588 10.138401329456382 3.195328053049984 134 251 28
70.22454933095284 69.97373251093835 96.41792829402698 240 18 36
97.86805313251193 22.10080826218752 67.07230190171468 89 221 158
66.32037996128571 32.78633399111146 45.928545457432314 199 15 154
50.97478736389045 96.79204390681798 33.309659133951286 131 83 64
28.44355335972393 75.8993690826263 78.67495568589877 26 82 40
45.250357580640234 99.76390208351033 25.328407591746572 222 249 97
75.42881872620558 5.35765074670026 40.766868520794795 136 23 188
15.585078917007145 81.65193532064893 91.87335768875397 67 44 175
64.56826355731124 68.22628133778592 47.35212435929015 95 196 65
49.71194370484493 31.44916947286891 25.92005871551001 12 35 16
44.040612981115146 3.3907199272951605 67.81176564988738 46 93 2
95.03395702981658 70.76264026738373 21.48757668060276 203 208 57
17.664982710855103 82.54100298768843 61.98410771189637 2 168 232
63.40367476396543 32.61805294359556 38.63816655503371 93 200 41
24.712099209972006 89.42400490338721 80.37675409360476 63 195 156
74.62471083593377 47.87417861477713 22.223475271259773 224 146 159
5.3917396912658955 77.96839016747258 51.60709292053881 11 75 223
64.10042603890562 35.683917535405804 54.14095773549447 251 98 247
62.8422357364514 0.7345935808704129 53.935049557395146 194 215 221
24.55860101216587 11.209909549321672 18.366256090798238 121 1 166
99.59003558691401 43.18966698350576 62.3315081178426 178 22 109
28.592760681056852 81.52541890492135 51.76537852194593 85 194 96
79.40424659495254 18.789652944422087 57.86437720398714 10 30 10
17.225284013639673 15.798082141141789 73.94680707867359 166 15 147
24.867856877222273 50.936644070631374 99.78732827766908 60 110 253
5.996735171446421 86.8326245680508 15.53600763023858 75 119 89
5.986251753444682 42.36147772347808 84.3617709775131 106 189 44
6.18073256738797 5.190120552496291 28.424097778254776 233 5 100
67.30747134268158 72.22792796748611 51.40922787630886 146 56 164
71.70882630960793 20.881904045653542 1.768490418809865 214 108 175
45.12477039525563 48.18649610267794 89.99019108962624 193 122 50
27.774624025528173 5.206966541424574 7.117184580173541 151 65 204
19.95014914125347 81.77427555776141 85.48478023512837 117 43 4
12.055933147129105 37.40975329988097 9.410462309103206 19 222 230
90.47832317444191 5.585977456575575 72.52566099706908 10 102 18
69.94707631305704 5.462386480460357 55.68881235549986 5 58 91
72.51123924066502 82.6148285642754 34.301717001854605 147 91 169
80.32289581894005 87.76807614166799 96.34270809047847 231 40 23
91.40514545810785 94.56964010514011 53.41189207525464 208 43 80
17.855350322280017 63.035530769565575 6.983154809811554 1 103 72
92.56313432914622 52.08522017614339 12.743535328016664 132 120 11
8.64553963342588 81.23744409589216 82.78227161243377 228 77 29
41.544637311953224 32.2700133137943 41.54687771122403 86 152 26
69.13125396039615 40.92110404702974 53.96026823968424 242 35 119
29.253164407370214 36.267105655248955 43.79272678386521 227 210 62
62.046962054875976 68.62008301559564 97.9863900766604 106 115 90
7.240709938836276 43.42821177816184 58.044055255466574 175 148 71
7.28646844151648 73.21436897277694 25.34566741486638 247 178 170
94.64543070046624 64.93733256711734 80.6093012244385 24 169 172
87.67679093133476 68.74056282407594 48.775749064458616 47 65 127
89.4577877784433 33.96382650271288 37.63113759275163 195 128 204
82.04495820993075 7.875513374153831 13.55662714299848 191 167 45
68.18314431129572 25.47480909741281 93.35356921660747 157 109 27
34.2705328213224 22.79099813747316 0.9467685794545488 164 209 122
44.06864140687986 47.91629225822105 6.248045359583221 150 139 168
40.690402062699114 74.72142400520052 27.444836392899052 106 121 71
74.21903567065573 55.521561927889806 87.67009945824239 237 224 106
12.57663815699226 47.39115985499143 62.72255383134786 56 61 205
74.89896252132631 79.57824682445205 51.536217008515386 134 209 134
41.88918138317438 7.608975766935866 61.32472496677881 136 54 15
19.93625283012048 81.48081424255572 14.563701518876904 120 133 43
55.84434202134052 87.84571105121 54.865260852619244 213 54 33
52.16344540403883 35.16397533051766 96.554229398201 73 43 131
96.08378116343027 96.61612241800609 9.249094245901512 165 232 123
12.774988126961196 74.0874377007165 71.3106071390223 180 0 67
60.26368282586838 12.927296866387994 91.84418437264877 227 182 228
0.9063513266148293 46.24436159943524 70.70342302299107 141 111 201
33.26982931441711 88.48830162216527 86.56474860254232 84 93 245
6.83335081633103 13.637236298512356 95.73703151816632 182 129 61
34.41962482500269 42.35211563162736 63.934116693639695 254 174 43
14.078522006121286 82.57109477742775 12.999100482674852 103 170 181
5.401323305649408 1.9287024476188908 56.26053629239465 169 114 164
47.0552980949742 62.932182506103565 31.69338619621468 6 143 241
56.15678794699656 35.96740991271348 38.09688726795633 99 196 36
14.750082280727927 24.041749091050114 28.28976919050793 0 169 8
71.71657330384528 57.56165102343256 44.450985541501 136 192 86
65.23140220705773 68.09855862115558 26.919958871128546 90 162 31
86.44845609083391 66.59631831341294 23.422218761663228 168 137 134
50.07785776287324 32.64658177156736 13.89555998278299 69 242 42
80.67605421237448 59.39679132379675 88.55739557499618 104 102 225
84.3479692007444 42.05542303242192 75.69773046875315 78 110 62
55.837045428042885 67.63218825142206 12.522033325400372 113 135 209
38.41233887454424 98.90171404505976 98.34430086260718 23 217 239
27.382115124908736 92.72589086583594 54.22332527178325 165 252 149
67.73783980594828 36.42368460557858 86.01750078941562 189 151 113
12.317681875145025 38.851542445766555 47.50739254043719 75 3 18
92.85821036035595 62.979325596280944 5.601849149448245 164 11 154
90.70290597371948 32.183463762445896 45.049611070351226 163 116 178
59.573657607442044 65.72440202217834 95.83220520237047 64 85 50
32.84541729897358 59.31289806817114 1.579609822585104 111 143 215
27.841114020471725 46.77713224091161 80.99866371179371 111 224 97
17.429202908249664 7.98964270258965 49.96026326145745 111 202 119
59.23874786331338 49.141762635411425 11.431570846511418 129 53 61
32.972627705609135 98.70341869978127 20.891207628555286 189 65 160
88.14325025537651 60.370115241421374 92.13137209714002 124 88 165
85.75085906778745 26.78959492720284 3.5735932854717545 237 233 209
91.60939214894563 17.788011170051433 69.36884582363525 63 194 93
67.35827450299871 82.7557758301454 86.64760030515865 147 90 153
14.253242731925875 28.141937205056344 85.82585401258613 92 213 71
40.81097214097596 11.893900487397413 4.86519151331647 122 227 72
3.6442383055505623 50.40212562086263 1.7213988089665788 23 97 100
62.88379220065552 93.08317166681204 67.00987323847303 10 164 70
64.91742752611957 68.76807829211461 6.2495560842765645 130 127 83
52.772867530999754 28.843982746291086 34.842796419584566 223 236 37
47.90250668783447 29.66849470576154 81.83942732461996 175 148 98
9.551225657885542 82.98740685417346 21.30327632017951 176 0 163
88.29326027279127 69.79687325060911 98.82967546401126 222 0 172
69.27113722270707 55.65741437932543 67.25799085035284 41 215 151
39.100414866652166 68.9933546953566 55.35545167819722 32 19 156
98.45130379074259 72.74775197017938 25.312853875414476 159 223 207
9.52018206117885 7.807673431027218 66.96888426425105 87 46 194
43.7057982430898 90.15628400481489 27.92512400110432 59 108 243
40.812349188435526 75.48166080537776 52.17037654378059 163 20 198
18.86339643600331 26.95495582143045 58.52626833817516 196 211 35
38.5399086954405 86.08391342250232 92.03381166760933 45 166 242
8.81667605930242 19.646163458241062 28.52062876211412 33 227 197
24.56566563423086 14.171719166159114 92.57643760601674 108 232 92
29.042916779274663 69.62623884575335 14.74281752299158 13 135 126
99.40643145588062 55.08436565359538 41.29803611198083 159 50 185
60.27899392258972 96.64985464080095 43.86607827152357 170 209 135
15.257734324718108 50.72113819002777 86.18857454724504 203 186 235
27.180532088680053 32.64729609756727 69.67170183631617 40 197 155
79.66111463060729 37.642405673460445 20.700005712875324 47 178 68
75.5915343037761 49.06716709668262 24.237399927974323 75 37 247
29.19847464460561 55.95566218026997 28.81728587048992 247 58 103
26.367410540428406 25.315024773387407 73.83625985295916 253 56 158
2.741438707264665 12.215409430127666 98.15663633331998 137 78 83
78.24543455184092 7.228015337569859 35.24687699680506 69 98 93
81.52617120613438 57.86255850576967 3.3363404757700166 71 170 171
48.78360963315128 43.231473307081295 73.2267206381751 222 66 143
85.21628598204981 73.66559722499699 58.61029819316413 52 49 199
51.2044326137586 44.74878549092979 62.17488754000178 40 124 189
2.622569444750167 86.66530298368622 50.78421150105399 247 191 123
63.85027864523403 51.33799024198079 7.043744118327866 174 187 32
3.2074239477706157 84.74488863091413 0.7709633340226452 238 189 129
14.437066049815305 64.22065851943299 34.95791958049295 148 190 143
10.959461088177902 8.428700955566871 46.73203312176369 241 120 108
2.1955498204109802 8.09203255572032 86.93248958778344 57 24 26
14.951680969659897 45.49945455150869 12.650159680662764 168 30 59
76.15490533814373 98.54306454574119 64.4640108454114 35 78 215
7.960386210752257 96.44277135672068 81.78215002962092 207 73 30
81.97440780290273 13.381316762506202 15.053051061501998 251 113 163
78.50565146570919 72.59067257167044 65.1484780104742 137 114 81
37.78389864856151 19.304346944564166 66.42691810356479 234 148 124
47.514606438395056 22.575401596669565 61.29962674595046 172 214 199
57.49044154945586 62.60345831487724 28.92533808221748 98 244 101
45.73924863467479 84.73748724837853 18.912820583383304 243 7 91
64.60213799303804 11.732741738606567 14.321994599450704 160 229 166
9.02665079593843 10.543296944178437 6.832069767675386 12 26 199
10.810062548698706 86.82224234215616 25.07657887369842 40 112 53
10.38429526718886 36.23752920062637 7.6450949055681505 198 136 141
6.172340486297944 91.58383686236623 14.84243760669256 247 19 138
3.6938661309484755 93.6063111067695 73.66460803068283 80 120 65
76.03612821043507 34.813786602889174 30.324694444194744 128 197 157
50.069120697635014 48.26262309701879 60.54345172082696 225 45 111
89.84954509871841 57.72887723209107 38.737306921878826 198 5 173
34.019117717003944 35.87726970081412 83.49509807253985 92 106 31
50.29874900295257 48.26034588045756 29.44082376734094 102 56 237
96.25190102840428 47.96302652849423 37.097285644555434 72 83 223
49.858737840105235 8.823920545830344 30.14606225965135 164 65 180
28.968842766542735 26.55679753131347 49.336296575304125 24 253 204
42.61075340669069 41.06995833710615 25.12656347197294 164 15 101
27.890536256346888 12.897959654823243 48.82198350939001 214 201 86
31.386891985280773 99.4328412611905 10.584174015807235 39 235 100
58.80196609826939 58.855412320804 90.99698265902357 44 238 87
90.83360793212482 44.785454736432584 84.78208695420342 152 77 24
47.460423837182134 17.94739693431594 32.36176508991389 236 253 41
46.68648882898423 88.9334660166705 39.46896338932467 225 36 188
1.8235221786814804 70.54742359326121 86.9529041337989 96 52 254
14.813129979044126 1.0120543567408213 95.96857424011809 100 158 48
39.19880055009214 76.75819308413739 53.05581077414263 250 223 81
67.55182579128693 97.2302626917644 49.89595082028092 243 104 21
83.64622298622456 69.48955653453905 87.92615635988153 154 79 224
88.36036882133294 36.03150521472851 37.31545960543726 192 14 157
30.0872788082851 49.933627325703 57.43411062263706 118 106 62
83.24908433006996 67.12504331042047 44.93827587831394 88 146 231
85.77410367787482 35.44836675632145 49.289441621402354 116 62 7
75.44084288303246 28.75467820783848 46.9834440495948 238 199 31
13.322926139491765 53.69270725843782 73.30774142537803 2 249 20
85.75038646889975 30.9466647837916 0.07475497546480803 154 145 60
14.201005880239093 72.2700872744148 9.727207059505128 152 2 254
28.63379592555415 62.50203148866521 12.62397097512199 154 15 89
34.9539838195002 35.99539505780508 92.86073827910276 134 125 27
4.739426303292693 40.22497650337991 18.17405890673114 41 190 141
13.311270599941604 40.68014405616543 81.09235570593847 21 37 153
52.600380239325304 43.85063761958248 74.75510360524189 232 200 154
54.102260270540945 79.25311553546479 14.68210046631917 206 103 150
46.86564027480238 66.60222620853241 34.39407441169291 235 157 55
84.79448897117625 95.96330612819573 43.30206028034942 81 189 230
84.15688684503843 97.51014506937953 48.09001798678775 133 139 115
49.24342604683002 28.556062910740966 63.303856213274344 202 88 8
94.28040793043148 4.921869479384943 25.864444067487725 229 15 250
90.18270253662867 59.70073504915069 93.29096880845442 233 55 13
88.82693569501554 4.891683071183706 90.04444685232048 222 216 245
47.92690081143552 33.30072192404173 89.02551807050469 162 168 56
81.34618628545412 26.706465206194363 72.93156156258999 245 235 74
44.623976618411334 53.521912966730014 74.62559819344273 1 253 223
52.93972541230646 55.95260029805227 73.8468946251993 14 101 38
21.03143635286484 7.888834605546968 48.932957282315094 92 47 250
89.31757791391857 18.25252191896962 34.807412749734254 33 5 182
85.34382135021481 65.50048533768775 36.09726971052941 209 101 128
48.04856454693724 81.06240987887207 71.31928102445386 205 16 34
42.72973164296965 41.505198269686694 25.482684033139492 16 133 0
89.59098651688649 29.487269169683174 21.82485463544931 245 84 231
46.01914676691532 60.84275354984299 37.93110806424339 194 137 216
36.630205054592494 22.188433446953916 40.25829929166759 241 238 254
82.04784790979653 25.846250959507078 18.381024043577632 63 251 57
11.747887811017343 41.03331494287812 2.31080218267794 254 252 176
46.46864255399338 27.73378001900496 13.39321242021394 34 67 224
29.51209540844937 64.4510475285046 99.53057844940406 88 15 160
28.30643314897141 12.697878290165555 8.628565149182311 201 99 101
4.8571682847081465 92.99858259417138 49.52281707506588 102 153 70
68.03456783834743 51.288891050498734 69.09955385916231 6 87 203
68.7699328403967 44.810333865895934 40.80541299862437 14 195 51
14.005718902761654 48.48879954736079 35.78787100305148 137 76 176
95.5011509992519 66.13188309363363 8.042901807432589 113 38 24
34.08162187295878 22.583290826338665 76.72537799182555 123 114 125
50.99540712320073 62.05966259654334 81.82471055030743 58 141 37
43.013973879821506 6.487057908951033 13.842410827987306 49 251 55
99.08471851174895 44.056978291453234 18.587244615760955 186 124 71
42.627374649646434 12.174619063759518 80.27456305052077 24 31 80
53.846957172277875 74.34846314477149 68.50518200535424 80 156 137
13.695584935090299 50.79442400526574 73.21508937787459 109 152 246
21.649583290517004 3.666791893449295 44.31853169799002 124 10 128
4.099935106295161 54.750608864417984 49.2073363297429 155 126 34
77.87990662509372 27.63156390565339 66.1259676467025 127 79 222
0.5744352666899322 40.8767517197274 91.96784765196094 11 211 170
28.162225488427563 15.45106303550673 73.00288868428227 81 225 227
71.58845666196623 84.76558133001988 90.99222148493158 150 232 60
86.5634361767715 71.67636338734073 18.81747112802623 6 184 133
41.10429982872499 40.294365272949825 86.77165338250053 252 52 239
46.17701285312958 1.4431778895662273 44.19605844999016 240 81 219
14.900826048846028 43.743187376172735 10.585372507481273 214 119 43
26.601539384905404 54.546095481223404 52.999403047641295 110 80 80
44.873113978442646 0.6504346967444063 89.96957405679441 75 125 86
93.65912837056702 76.34502684834537 68.99922971384687 45 53 21
38.04327439393854 85.35846945000819 22.564636762720326 240 240 98
50.01052464852004 85.20659597049423 5.194719831786876 139 80 254
50.48255925288292 80.78269665593551 16.27369390952892 108 74 198
51.218544525119036 51.75796023716504 11.534012734729338 200 89 181
43.18881851060182 33.848455982889604 12.328293118190924 198 12 150
10.918030948406866 75.4341193827237 48.87851510452998 214 74 153
90.94319572887323 52.05596132802101 64.6799721269903 56 185 56
99.31415257401075 33.5952659510956 12.645933357387673 175 115 41
11.32904078557847 5.563166105028461 55.895339693447774 134 253 166
35.98287350814346 74.22669533226978 53.69251334028654 163 221 41
37.075217670605994 22.969978906630473 65.57906664628405 8 217 228
24.69110381397741 83.172927789215 4.304557895076744 174 178 121
60.13467619057342 93.74956365140801 90.22125920474511 162 240 67
3.593745908793222 65.63489438412992 74.07026878842929 221 80 178
67.26410843863381 98.24683542497702 30.93875508932875 220 32 247
78.76517891217549 91.83504648915499 7.8698193317973235 20 24 5
4.373747698707719 23.41817080633659 83.89696699865773 147 188 136
64.01018026347303 6.838661069158469 27.678684604853842 226 79 69
61.641347963111905 86.7340290904785 18.670570990442712 224 199 216
73.88101833015962 21.28831301357712 17.329003737501903 188 202 22
39.964705780714674 19.041499905993987 76.04776093582781 89 151 2
41.7127085163565 30.412779340013717 69.02470558882328 186 104 7
5.144258802165947 50.371181535899844 99.04066484748817 109 8 138
20.88525820002426 70.8518382828338 35.2356880705153 74 115 22
51.303174153047415 71.09358851398754 1.4780374071974967 213 2 182
33.18741916789286 43.162013488832415 44.58420555095134 9 41 178
55.80836971810326 54.01438979203627 81.05177462190699 97 40 112
27.356066233770825 3.371836706572884 71.81121848556565 35 154 102
99.75497946722182 90.60836906759906 0.26081723439687066 55 168 94
90.40013749795102 68.26987625551925 46.890814126426484 62 71 11
36.74601373828127 65.53909607918757 49.89040213667933 186 65 34
25.41005075591216 36.10790256483032 27.949573567237675 13 28 237
98.26774372191933 88.51083417173923 64.80713685416754 127 195 48
29.22805670871995 17.01909959265986 58.843777850460945 13 201 113
41.46978020851613 4.220620218144622 61.99614593191826 210 250 89
29.911182470637833 87.70018916739502 52.90012405441635 149 81 65
65.5921471454727 94.97511871683687 1.8728513197201702 204 119 1
80.29566401142093 63.97218772098968 58.23089563667345 17 239 115
66.13847494289288 72.39270122754944 0.2952184845365302 16 228 178
54.40549903907085 85.72328856843558 93.90900918877611 47 1 226
53.66847000021732 62.37886877415616 47.280670880592076 57 225 138
76.85991571382925 88.14189163233188 77.29993964851666 77 210 212
73.453321053753 33.45007307664684 47.774277632008086 199 80 99
60.34367427045749 24.805498589571563 82.99444440624704 21 204 220
6.234529419991541 97.52693828462526 17.691956374762707 208 85 194
71.4674359158121 62.922457457462976 42.40401235043544 233 34 86
44.814692461094516 63.90531163281074 97.2669603327682 204 92 98
67.35705431963126 65.51486855795694 7.668569299040873 46 171 102
47.99580394203799 52.74927633608417 42.09856197402701 101 103 191
65.24125655067358 21.82736441129175 94.40277879039176 131 197 146
69.78777769575876 68.49836031415832 22.969614020418415 34 35 100
31.418197016129 56.55107011868711 46.561494434342364 39 34 224
66.89594019672657 47.73363870418233 53.85552501102815 227 82 103
96.30523482126992 82.4493596091503 52.643274194427 121 1 160
79.23339043523127 51.11753968865822 92.20375797605462 50 206 25
46.44621269237261 71.82530960051253 19.830408879464034 17 176 102
69.78447539416632 52.49966409121989 48.86593065927498 237 36 35
48.35422191837502 27.05690440409062 43.93977997546362 152 30 147
95.80639742872022 65.91184004719466 23.241192319250313 191 48 26
0.16688702672617017 69.80750985765124 81.73327537093652 232 68 225
56.74001117600177 12.994575693617561 34.05709834110571 223 5 66
96.26200681332328 3.2980432948674143 55.608767126614026 202 158 55
96.38305357617897 78.19315739885792 18.418143237689332 173 88 5
6.175317265338542 94.33900647033805 36.84390453101045 138 150 103
3.50003683771567 38.29451161013434 5.150589675782968 7 22 238
35.28987138979568 57.827003130102824 83.95710319243655 78 207 60
99.41956860864751 92.93100252111508 50.315696875933334 193 191 42
61.798963659484215 90.0208582191695 32.39879500679124 53 94 128
57.17211579714504 20.29788435775203 16.47068500800056 151 131 154
18.417506680201644 46.914506357937135 58.228626818695226 6 133 155
69.92594495199282 56.78458045806389 75.01119670337022 21 184 107
57.74727050317164 42.998900224230496 44.645881759708615 242 246 186
70.33097155273188 68.2409188926161 89.56123081422709 22 95 197
59.795206875217055 80.97892572925194 4.213737418705421 64 26 65
96.18465447835935 91.81534133814444 80.08026508711431 55 115 138
60.17479122771784 85.34948042708312 32.75352424402351 16 158 163
24.764417866027866 42.25447789667941 7.960556223589943 9 21 174
5.394644602757593 48.07194002250361 19.693540366243944 47 193 152
13.044905688235497 86.51697836638166 54.62104235563607 96 78 218
66.34170651636498 90.59803954397864 97.76493987270139 113 28 194
28.565957656595366 45.06535144015223 57.56305348303839 68 45 217
76.61884340983396 66.85124556775112 72.49311727571202 74 13 16
27.933459134499028 51.04948185062012 63.227599151067196 53 141 14
3.437074865612977 27.576808820268884 50.10577680136312 0 31 47
2.8992773838962926 47.58784443644222 91.66151446385837 2 213 22
41.99609863283376 92.80144268756143 71.2970777503497 197 81 149
63.50106013686777 5.425434003473384 59.99562037633932 196 76 247
19.561871603551605 41.07301772320186 25.13911636658175 139 226 44
40.64467544919565 95.61135390066823 10.781495445888767 172 202 246
20.666966451283642 97.41250465232287 84.07830885454972 191 111 240
51.29670878801655 20.92335387115549 51.44390911678375 175 169 201
31.665371710867174 91.17306666952003 70.5429741845565 116 249 205
97.3561521399139 25.051109891102442 61.23870828496414 179 178 50
1.6123781027794104 19.05448461467154 50.76778181718549 102 59 29
95.91841862752949 93.86427046954469 1.6902518120305743 176 106 182
94.9781345865577 80.32511201225941 33.31891966881819 240 165 208
46.52306768073071 11.368442005467083 41.375089557595366 125 232 216
86.75748680720145 77.90378297165951 4.64272838744908 63 55 181
45.923945060631674 36.7989815671182 63.7200278220711 89 246 245
13.109903684747204 54.6335554959544 3.762080180285432 151 110 47
20.437237207129776 70.32382326283312 91.5434558061075 140 226 25
10.811932592848816 37.87131575534518 93.25831113518824 248 24 129
27.539658279882595 59.55954470210122 3.362307772509965 142 219 27
39.95614400339754 7.0583115087083925 39.32188570667774 173 82 142
64.73077105560786 94.30274041938388 59.31679477835665 252 127 145
11.445645338296906 41.46094444094109 2.109568372094839 254 109 26
50.34505258137716 87.1074807969493 23.071263150711108 3 165 57
20.314495307361703 27.55827424614692 53.49347344201001 251 20 168
14.683056609347444 66.46844232359696 77.99559017045522 141 209 218
31.561951652676946 18.64233286471616 35.72885667920788 248 251 171
76.81546685666967 44.66581714007383 82.32439021220628 116 138 8
92.98013987648328 39.391461244439895 87.79849980106698 134 0 4
52.08220291975045 19.601501523405606 27.62305265048839 117 178 181
0.33579643147929605 85.09323058824053 3.2668691896039714 53 130 121
94.46225105331276 29.55375726936428 87.71775806880446 107 156 144
34.73965551054646 61.93828281451237 34.88787522592174 18 35 60
91.81608363770198 76.68592927862828 60.282533255437684 153 8 219
10.404172270425727 20.9644592646427 68.30209277701883 123 67 34
24.550447330206193 1.2248174768915154 1.8888340340055043 245 195 63
31.171522813701692 0.2960836370267894 67.80473262307251 68 136 151
35.76634368987632 3.858571879068673 43.97516331569421 171 222 62
51.39269106256835 88.55405361642754 96.46476084608642 166 17 38
76.79066732517853 61.347425951928024 38.69997810906559 197 248 75
47.73245091970535 46.368288385857646 26.914496548269216 3 28 48
30.617150549637362 16.056150967401063 25.15813358159954 81 159 202
57.674940243850536 10.003438729374004 88.13914266582515 6 199 11
50.75927396849485 11.386844810509256 1.798304618473967 215 220 38
72.83180787094489 66.69211834043855 47.53064255439602 206 232 210
87.7059514851006 57.42725596477693 76.19469547931314 147 109 236
52.269224417355254 13.192966470120238 36.09114270119039 60 243 68
60.43878906621247 73.41103091109409 89.736733676567 234 225 51
45.0033576479024 25.882532753768984 11.648946437434581 72 162 245
4.431290846374447 40.60520965148776 67.3618992000431 209 246 2
17.285436994290983 86.67832810406547 17.32678933503814 73 213 138
52.431611595585835 14.883030801832431 88.49573105882564 111 42 96
41.141890697661424 48.38907018527616 20.468568513642605 231 24 238
33.21939496234057 38.36342743495131 49.56785003793269 217 250 226
86.15257670322617 91.44960407023103 82.97601382795857 195 160 65
68.80062660056501 41.16240096785728 31.46142444363723 220 47 7
41.380978701352475 9.928936157245216 32.2384610235993 141 215 48
75.18228016124873 76.14910093396111 98.83010574204097 174 238 197
60.154135574394616 41.22759036670255 42.85076615225647 204 170 19
0.1361540838641151 94.43600361012228 80.68109130205562 24 100 150
88.09309980964181 84.5161849599455 76.55950466094573 112 5 166
50.69801262165249 85.74187892588888 16.82689920435957 186 72 140
34.52008344126274 98.2943544403957 61.06951232797103 68 209 136
69.10191671209073 62.50691053940248 39.92101263897641 241 30 174
83.04128444998977 56.10841336537011 0.5086640201931503 231 87 201
71.35368212201267 9.580571614702604 96.64398821152649 122 18 34
37.259789891833975 14.81561680850364 45.379622839129716 58 19 220
78.52185345249538 44.48992170685769 82.70030553530884 173 128 86
62.75083735605153 36.037062391891354 84.00362376592156 62 120 204
62.89315982208886 30.410312112604743 4.12361647346613 146 6 19
77.04740686308293 15.36639589818327 41.01040704617159 211 222 158
75.63736702784844 51.942674317874804 15.434383638757165 80 170 35
76.20412087226667 77.78778456356217 65.65128807191937 126 176 225
6.093374211961811 98.45918209971147 47.0035760758714 67 67 246
91.72826213146405 60.272169986007405 4.859377302053602 111 64 212
63.00851617311288 19.54447838086102 88.08762046661619 84 64 5
36.9407582407848 97.00468592287925 4.144647984655747 182 187 174
35.55833680168246 21.392806093610005 49.82688827058641 194 154 72
25.18310433014459 11.139543911703997 50.21036176823167 100 107 241
20.24227561215476 25.680030237588092 44.60166155377551 38 128 46
46.038044469609844 94.90109776468827 60.928768170573356 18 100 143
13.891165422812168 3.3235043126518926 29.215139079524853 239 152 173
45.38741326660415 13.980520615300163 12.955678265565274 33 50 242
85.08263739787586 30.706461403082574 15.775164689738775 134 237 175
57.300780177922746 61.46022992604223 91.31343641305651 141 207 103
6.083636202958664 88.82868187938902 28.087006988504392 226 85 24
52.21399888514123 31.094531346627964 68.8870743164234 193 85 113
58.41936091697399 83.32473166073832 86.63715670041509 78 118 93
7.380315866240772 80.31387913456149 3.01581284210074 202 195 230
47.759499637049416 74.91728860029076 3.1182904649173726 87 220 124
37.90317484456986 23.23042705330236 22.40177936154065 199 183 23
3.120255958451401 61.20153979279055 96.52420454375829 163 186 48
63.917174403652055 20.025030597462933 2.697354458142165 131 2 78
92.90556935610135 27.87881147017066 47.33284089158193 81 245 0
88.38710887276693 1.4607121640359377 15.105189102125927 241 31 160
75.00956069660711 26.59888212390189 16.236739099175036 33 161 6
98.33056752626486 29.784290916809518 77.7070885207195 126 59 145
80.15954931686623 75.00130327899002 93.67356088400969 202 84 223
70.07981202384877 99.46461204103223 88.44725753059274 253 128 138
78.86080843575716 99.90945925635816 55.46756552902822 107 161 120
72.17337929044217 29.417826065042384 90.66365532436033 109 54 55
87.57764025083183 15.363358468065702 98.49828397133189 231 211 77
81.29798918249132 42.052506660524344 7.607360873010882 87 34 50
37.51920641356221 54.088846798802294 2.6026106570106733 207 27 2
83.46474047599867 14.954818195217568 58.2389266427792 56 245 37
82.27483421684383 85.8926200347114 75.75896795600663 120 159 106
64.26619472790318 77.45083591953077 81.00305732928726 100 180 82
49.816650200009946 30.096710229745526 41.14022079749747 97 0 229
89.36439192115895 39.97350999415505 92.8193730902526 210 29 39
20.938321011600504 33.41762928744391 15.473838744960233 70 121 104
55.28637800467882 52.665077263681006 92.92485428818496 46 226 109
52.05345011724252 92.47011243087296 64.91527576504865 93 116 104
71.39379921547378 65.73094941046485 65.40990691058293 135 72 155
98.88142043988564 37.478883391802285 12.627472395009454 185 216 150
13.410264839341401 55.50523688044156 70.88970750493773 169 224 79
56.900083201185005 72.83522962616588 99.30394526405266 210 158 84
67.22650637702537 50.02834281553735 16.20532820599386 239 245 220
11.402370795816086 19.957863448441373 31.35398280953112 6 121 5
3.285865448175751 93.84430670084187 8.704628852067287 142 229 222
79.67611587728236 26.498786059910152 24.190231958139773 12 164 196
28.99531394747693 50.553152425990376 57.07769648321336 22 162 197
4.410978457377057 99.06917633496532 70.41135627195267 23 181 64
10.33466319462557 87.3557675698211 52.376086444017425 129 193 155
90.07703940361822 28.699802383739936 66.28647114847925 59 186 33
56.41865385334683 13.911608278706078 39.09243375814789 38 116 5
16.75981580087369 28.3277150407098 62.419105363969585 80 136 110
74.90835300216386 74.01654487642207 72.77230147927563 25 43 77
14.055739658839428 44.180886326045886 54.140768815635674 124 65 13
7.214878895992172 52.54714454957784 82.94273413792027 242 19 120
1.509313287481795 20.686524914524895 56.59021670117127 117 27 103
28.086435210510675 60.65200205543434 24.68250586622329 207 47 9
62.15908388390559 15.212498066910685 85.35102705725863 90 0 61
0.5815574224724562 98.88739507327676 74.56330376215774 110 170 204
82.94163834626636 80.0929431889764 66.35265631347896 17 242 153
19.01729264173202 0.8912243133401221 55.00019318644199 14 100 28
7.1758960281342095 31.641246681304903 59.47507624343166 193 112 189
13.8266343904207 25.630440440168666 0.3989024010285669 1 199 5
87.46560568217906 19.752744197293126 31.098291811867163 104 209 117
